ply
format ascii 1.0
comment PCL generated
obj_info is_cyberware_data 0
obj_info is_mesh 0
obj_info is_warped 0
obj_info is_interlaced 0
obj_info num_cols 149912
obj_info num_rows 1
obj_info echo_rgb_offset_x 0
obj_info echo_rgb_offset_y 0
obj_info echo_rgb_offset_z 0
obj_info echo_rgb_frontfocus 0.0
obj_info echo_rgb_backfocus 0.0
obj_info echo_rgb_pixelsize 0.0
obj_info echo_rgb_centerpixel 0
obj_info echo_frames 1
obj_info echo_lgincr 0.0
element vertex 1913
property float x
property float y
property float z
end_header
73.0469 2.76214 -91.0156
48.0469 38.1175 -66.0156
48.0469 2.76214 -41.0156
98.0469 2.76214 -41.0156
48.0469 2.76214 -91.0156
98.0469 2.76214 -91.0156
73.0469 38.1175 -66.0156
35.5469 20.4398 -28.5156
85.5469 20.4398 -28.5156
35.5469 20.4398 -78.5156
85.5469 20.4398 -78.5156
60.5469 55.7951 -53.5156
16.7969 11.601 -9.76562
66.7969 11.601 -9.76562
16.7969 11.601 -59.7656
66.7969 11.601 -59.7656
41.7969 46.9563 -34.7656
41.7969 11.601 -9.76562
91.7969 11.601 -9.76562
41.7969 11.601 -59.7656
91.7969 11.601 -59.7656
66.7969 46.9563 -34.7656
16.7969 11.601 -34.7656
66.7969 11.601 -34.7656
16.7969 11.601 -84.7656
66.7969 11.601 -84.7656
41.7969 46.9563 -59.7656
41.7969 11.601 -34.7656
91.7969 11.601 -34.7656
41.7969 11.601 -84.7656
91.7969 11.601 -84.7656
66.7969 46.9563 -59.7656
29.2969 29.2786 -22.2656
79.2969 29.2786 -22.2656
29.2969 29.2786 -72.2656
79.2969 29.2786 -72.2656
54.2969 64.634 -47.2656
4.29688 2.76214 -9.76562
54.2969 2.76214 -9.76562
4.29688 2.76214 -59.7656
54.2969 2.76214 -59.7656
29.2969 38.1175 -34.7656
29.2969 2.76214 -9.76562
79.2969 2.76214 -9.76562
29.2969 2.76214 -59.7656
79.2969 2.76214 -59.7656
54.2969 38.1175 -34.7656
4.29688 2.76214 -34.7656
54.2969 2.76214 -34.7656
4.29688 2.76214 -84.7656
54.2969 2.76214 -84.7656
29.2969 38.1175 -59.7656
29.2969 2.76214 -34.7656
79.2969 2.76214 -34.7656
29.2969 2.76214 -84.7656
79.2969 2.76214 -84.7656
54.2969 38.1175 -59.7656
16.7969 20.4398 -22.2656
66.7969 20.4398 -22.2656
16.7969 20.4398 -72.2656
66.7969 20.4398 -72.2656
41.7969 55.7951 -47.2656
16.7969 2.76214 -9.76562
66.7969 2.76214 -9.76562
16.7969 2.76214 -59.7656
66.7969 2.76214 -59.7656
41.7969 38.1175 -34.7656
41.7969 2.76214 -9.76562
91.7969 2.76214 -9.76562
41.7969 2.76214 -59.7656
91.7969 2.76214 -59.7656
66.7969 38.1175 -34.7656
16.7969 2.76214 -34.7656
66.7969 2.76214 -34.7656
16.7969 2.76214 -84.7656
66.7969 2.76214 -84.7656
41.7969 38.1175 -59.7656
41.7969 2.76214 -34.7656
91.7969 2.76214 -34.7656
41.7969 2.76214 -84.7656
91.7969 2.76214 -84.7656
66.7969 38.1175 -59.7656
29.2969 20.4398 -22.2656
79.2969 20.4398 -22.2656
29.2969 20.4398 -72.2656
79.2969 20.4398 -72.2656
54.2969 55.7951 -47.2656
4.29688 2.76214 -22.2656
54.2969 2.76214 -22.2656
4.29688 2.76214 -72.2656
54.2969 2.76214 -72.2656
29.2969 38.1175 -47.2656
29.2969 2.76214 -22.2656
79.2969 2.76214 -22.2656
29.2969 2.76214 -72.2656
79.2969 2.76214 -72.2656
54.2969 38.1175 -47.2656
4.29688 2.76214 -47.2656
54.2969 2.76214 -47.2656
4.29688 2.76214 -97.2656
54.2969 2.76214 -97.2656
29.2969 38.1175 -72.2656
29.2969 2.76214 -47.2656
79.2969 2.76214 -47.2656
29.2969 2.76214 -97.2656
79.2969 2.76214 -97.2656
54.2969 38.1175 -72.2656
16.7969 20.4398 -34.7656
66.7969 20.4398 -34.7656
16.7969 20.4398 -84.7656
66.7969 20.4398 -84.7656
41.7969 55.7951 -59.7656
16.7969 2.76214 -22.2656
66.7969 2.76214 -22.2656
16.7969 2.76214 -72.2656
66.7969 2.76214 -72.2656
41.7969 38.1175 -47.2656
41.7969 2.76214 -22.2656
91.7969 2.76214 -22.2656
41.7969 2.76214 -72.2656
91.7969 2.76214 -72.2656
66.7969 38.1175 -47.2656
16.7969 2.76214 -47.2656
66.7969 2.76214 -47.2656
16.7969 2.76214 -97.2656
66.7969 2.76214 -97.2656
41.7969 38.1175 -72.2656
41.7969 2.76214 -47.2656
91.7969 2.76214 -47.2656
41.7969 2.76214 -97.2656
91.7969 2.76214 -97.2656
66.7969 38.1175 -72.2656
29.2969 20.4398 -34.7656
79.2969 20.4398 -34.7656
29.2969 20.4398 -84.7656
79.2969 20.4398 -84.7656
54.2969 55.7951 -59.7656
10.5469 11.601 -16.0156
60.5469 11.601 -16.0156
10.5469 11.601 -66.0156
60.5469 11.601 -66.0156
35.5469 46.9563 -41.0156
35.5469 11.601 -16.0156
85.5469 11.601 -16.0156
35.5469 11.601 -66.0156
85.5469 11.601 -66.0156
60.5469 46.9563 -41.0156
10.5469 11.601 -41.0156
60.5469 11.601 -41.0156
10.5469 11.601 -91.0156
60.5469 11.601 -91.0156
35.5469 46.9563 -66.0156
35.5469 11.601 -41.0156
85.5469 11.601 -41.0156
35.5469 11.601 -91.0156
85.5469 11.601 -91.0156
60.5469 46.9563 -66.0156
23.0469 29.2786 -28.5156
73.0469 29.2786 -28.5156
23.0469 29.2786 -78.5156
73.0469 29.2786 -78.5156
48.0469 64.634 -53.5156
10.5469 2.76214 -9.76562
60.5469 2.76214 -9.76562
10.5469 2.76214 -59.7656
60.5469 2.76214 -59.7656
35.5469 38.1175 -34.7656
35.5469 2.76214 -9.76562
85.5469 2.76214 -9.76562
35.5469 2.76214 -59.7656
85.5469 2.76214 -59.7656
60.5469 38.1175 -34.7656
10.5469 2.76214 -34.7656
60.5469 2.76214 -34.7656
10.5469 2.76214 -84.7656
60.5469 2.76214 -84.7656
35.5469 38.1175 -59.7656
35.5469 2.76214 -34.7656
85.5469 2.76214 -34.7656
35.5469 2.76214 -84.7656
85.5469 2.76214 -84.7656
60.5469 38.1175 -59.7656
23.0469 20.4398 -22.2656
73.0469 20.4398 -22.2656
23.0469 20.4398 -72.2656
73.0469 20.4398 -72.2656
48.0469 55.7951 -47.2656
23.0469 2.76214 -9.76562
73.0469 2.76214 -9.76562
23.0469 2.76214 -59.7656
73.0469 2.76214 -59.7656
48.0469 38.1175 -34.7656
48.0469 2.76214 -9.76562
98.0469 2.76214 -9.76562
48.0469 2.76214 -59.7656
98.0469 2.76214 -59.7656
73.0469 38.1175 -34.7656
23.0469 2.76214 -34.7656
73.0469 2.76214 -34.7656
23.0469 2.76214 -84.7656
73.0469 2.76214 -84.7656
48.0469 38.1175 -59.7656
48.0469 2.76214 -34.7656
98.0469 2.76214 -34.7656
48.0469 2.76214 -84.7656
98.0469 2.76214 -84.7656
73.0469 38.1175 -59.7656
35.5469 20.4398 -22.2656
85.5469 20.4398 -22.2656
35.5469 20.4398 -72.2656
85.5469 20.4398 -72.2656
60.5469 55.7951 -47.2656
10.5469 2.76214 -22.2656
60.5469 2.76214 -22.2656
10.5469 2.76214 -72.2656
60.5469 2.76214 -72.2656
35.5469 38.1175 -47.2656
35.5469 2.76214 -22.2656
85.5469 2.76214 -22.2656
35.5469 2.76214 -72.2656
85.5469 2.76214 -72.2656
60.5469 38.1175 -47.2656
10.5469 2.76214 -47.2656
60.5469 2.76214 -47.2656
10.5469 2.76214 -97.2656
60.5469 2.76214 -97.2656
35.5469 38.1175 -72.2656
35.5469 2.76214 -47.2656
85.5469 2.76214 -47.2656
35.5469 2.76214 -97.2656
85.5469 2.76214 -97.2656
60.5469 38.1175 -72.2656
23.0469 20.4398 -34.7656
73.0469 20.4398 -34.7656
23.0469 20.4398 -84.7656
73.0469 20.4398 -84.7656
48.0469 55.7951 -59.7656
23.0469 2.76214 -22.2656
73.0469 2.76214 -22.2656
23.0469 2.76214 -72.2656
73.0469 2.76214 -72.2656
48.0469 38.1175 -47.2656
48.0469 2.76214 -22.2656
98.0469 2.76214 -22.2656
48.0469 2.76214 -72.2656
98.0469 2.76214 -72.2656
73.0469 38.1175 -47.2656
23.0469 2.76214 -47.2656
73.0469 2.76214 -47.2656
23.0469 2.76214 -97.2656
73.0469 2.76214 -97.2656
48.0469 38.1175 -72.2656
48.0469 2.76214 -47.2656
98.0469 2.76214 -47.2656
48.0469 2.76214 -97.2656
98.0469 2.76214 -97.2656
73.0469 38.1175 -72.2656
35.5469 20.4398 -34.7656
85.5469 20.4398 -34.7656
35.5469 20.4398 -84.7656
85.5469 20.4398 -84.7656
60.5469 55.7951 -59.7656
16.7969 11.601 -16.0156
66.7969 11.601 -16.0156
16.7969 11.601 -66.0156
66.7969 11.601 -66.0156
41.7969 46.9563 -41.0156
41.7969 11.601 -16.0156
91.7969 11.601 -16.0156
41.7969 11.601 -66.0156
91.7969 11.601 -66.0156
66.7969 46.9563 -41.0156
16.7969 11.601 -41.0156
66.7969 11.601 -41.0156
16.7969 11.601 -91.0156
66.7969 11.601 -91.0156
41.7969 46.9563 -66.0156
41.7969 11.601 -41.0156
91.7969 11.601 -41.0156
41.7969 11.601 -91.0156
91.7969 11.601 -91.0156
66.7969 46.9563 -66.0156
29.2969 29.2786 -28.5156
79.2969 29.2786 -28.5156
29.2969 29.2786 -78.5156
79.2969 29.2786 -78.5156
54.2969 64.634 -53.5156
7.42188 7.18155 -6.64062
57.4219 7.18155 -6.64062
7.42188 7.18155 -56.6406
57.4219 7.18155 -56.6406
32.4219 42.5369 -31.6406
32.4219 7.18155 -6.64062
82.4219 7.18155 -6.64062
32.4219 7.18155 -56.6406
82.4219 7.18155 -56.6406
57.4219 42.5369 -31.6406
7.42188 7.18155 -31.6406
57.4219 7.18155 -31.6406
7.42188 7.18155 -81.6406
57.4219 7.18155 -81.6406
32.4219 42.5369 -56.6406
32.4219 7.18155 -31.6406
82.4219 7.18155 -31.6406
32.4219 7.18155 -81.6406
82.4219 7.18155 -81.6406
57.4219 42.5369 -56.6406
19.9219 24.8592 -19.1406
69.9219 24.8592 -19.1406
19.9219 24.8592 -69.1406
69.9219 24.8592 -69.1406
44.9219 60.2146 -44.1406
19.9219 7.18155 -6.64062
69.9219 7.18155 -6.64062
19.9219 7.18155 -56.6406
69.9219 7.18155 -56.6406
44.9219 42.5369 -31.6406
44.9219 7.18155 -6.64062
94.9219 7.18155 -6.64062
44.9219 7.18155 -56.6406
94.9219 7.18155 -56.6406
69.9219 42.5369 -31.6406
19.9219 7.18155 -31.6406
69.9219 7.18155 -31.6406
19.9219 7.18155 -81.6406
69.9219 7.18155 -81.6406
44.9219 42.5369 -56.6406
44.9219 7.18155 -31.6406
94.9219 7.18155 -31.6406
44.9219 7.18155 -81.6406
94.9219 7.18155 -81.6406
69.9219 42.5369 -56.6406
32.4219 24.8592 -19.1406
82.4219 24.8592 -19.1406
32.4219 24.8592 -69.1406
82.4219 24.8592 -69.1406
57.4219 60.2146 -44.1406
7.42188 7.18155 -19.1406
57.4219 7.18155 -19.1406
7.42188 7.18155 -69.1406
57.4219 7.18155 -69.1406
32.4219 42.5369 -44.1406
32.4219 7.18155 -19.1406
82.4219 7.18155 -19.1406
32.4219 7.18155 -69.1406
82.4219 7.18155 -69.1406
57.4219 42.5369 -44.1406
7.42188 7.18155 -44.1406
57.4219 7.18155 -44.1406
7.42188 7.18155 -94.1406
57.4219 7.18155 -94.1406
32.4219 42.5369 -69.1406
32.4219 7.18155 -44.1406
82.4219 7.18155 -44.1406
32.4219 7.18155 -94.1406
82.4219 7.18155 -94.1406
57.4219 42.5369 -69.1406
19.9219 24.8592 -31.6406
69.9219 24.8592 -31.6406
19.9219 24.8592 -81.6406
69.9219 24.8592 -81.6406
44.9219 60.2146 -56.6406
19.9219 7.18155 -19.1406
69.9219 7.18155 -19.1406
19.9219 7.18155 -69.1406
69.9219 7.18155 -69.1406
44.9219 42.5369 -44.1406
44.9219 7.18155 -19.1406
94.9219 7.18155 -19.1406
44.9219 7.18155 -69.1406
94.9219 7.18155 -69.1406
69.9219 42.5369 -44.1406
19.9219 7.18155 -44.1406
69.9219 7.18155 -44.1406
19.9219 7.18155 -94.1406
69.9219 7.18155 -94.1406
44.9219 42.5369 -69.1406
44.9219 7.18155 -44.1406
94.9219 7.18155 -44.1406
44.9219 7.18155 -94.1406
94.9219 7.18155 -94.1406
69.9219 42.5369 -69.1406
32.4219 24.8592 -31.6406
82.4219 24.8592 -31.6406
32.4219 24.8592 -81.6406
82.4219 24.8592 -81.6406
57.4219 60.2146 -56.6406
13.6719 16.0204 -12.8906
63.6719 16.0204 -12.8906
13.6719 16.0204 -62.8906
63.6719 16.0204 -62.8906
38.6719 51.3757 -37.8906
38.6719 16.0204 -12.8906
88.6719 16.0204 -12.8906
38.6719 16.0204 -62.8906
88.6719 16.0204 -62.8906
63.6719 51.3757 -37.8906
13.6719 16.0204 -37.8906
63.6719 16.0204 -37.8906
13.6719 16.0204 -87.8906
63.6719 16.0204 -87.8906
38.6719 51.3757 -62.8906
38.6719 16.0204 -37.8906
88.6719 16.0204 -37.8906
38.6719 16.0204 -87.8906
88.6719 16.0204 -87.8906
63.6719 51.3757 -62.8906
26.1719 33.6981 -25.3906
76.1719 33.6981 -25.3906
26.1719 33.6981 -75.3906
76.1719 33.6981 -75.3906
51.1719 69.0534 -50.3906
1.95312 1.65728 -1.17188
51.9531 1.65728 -1.17188
1.95312 1.65728 -51.1719
51.9531 1.65728 -51.1719
26.9531 37.0126 -26.1719
26.9531 1.65728 -1.17188
76.9531 1.65728 -1.17188
26.9531 1.65728 -51.1719
76.9531 1.65728 -51.1719
51.9531 37.0126 -26.1719
1.95312 1.65728 -26.1719
51.9531 1.65728 -26.1719
1.95312 1.65728 -76.1719
51.9531 1.65728 -76.1719
26.9531 37.0126 -51.1719
26.9531 1.65728 -26.1719
76.9531 1.65728 -26.1719
26.9531 1.65728 -76.1719
76.9531 1.65728 -76.1719
51.9531 37.0126 -51.1719
14.4531 19.335 -13.6719
64.4531 19.335 -13.6719
14.4531 19.335 -63.6719
64.4531 19.335 -63.6719
39.4531 54.6903 -38.6719
14.4531 1.65728 -1.17188
64.4531 1.65728 -1.17188
14.4531 1.65728 -51.1719
64.4531 1.65728 -51.1719
39.4531 37.0126 -26.1719
39.4531 1.65728 -1.17188
89.4531 1.65728 -1.17188
39.4531 1.65728 -51.1719
89.4531 1.65728 -51.1719
64.4531 37.0126 -26.1719
14.4531 1.65728 -26.1719
64.4531 1.65728 -26.1719
14.4531 1.65728 -76.1719
64.4531 1.65728 -76.1719
39.4531 37.0126 -51.1719
39.4531 1.65728 -26.1719
89.4531 1.65728 -26.1719
39.4531 1.65728 -76.1719
89.4531 1.65728 -76.1719
64.4531 37.0126 -51.1719
26.9531 19.335 -13.6719
76.9531 19.335 -13.6719
26.9531 19.335 -63.6719
76.9531 19.335 -63.6719
51.9531 54.6903 -38.6719
1.95312 1.65728 -13.6719
51.9531 1.65728 -13.6719
1.95312 1.65728 -63.6719
51.9531 1.65728 -63.6719
26.9531 37.0126 -38.6719
26.9531 1.65728 -13.6719
76.9531 1.65728 -13.6719
26.9531 1.65728 -63.6719
76.9531 1.65728 -63.6719
51.9531 37.0126 -38.6719
1.95312 1.65728 -38.6719
51.9531 1.65728 -38.6719
1.95312 1.65728 -88.6719
51.9531 1.65728 -88.6719
26.9531 37.0126 -63.6719
26.9531 1.65728 -38.6719
76.9531 1.65728 -38.6719
26.9531 1.65728 -88.6719
76.9531 1.65728 -88.6719
51.9531 37.0126 -63.6719
14.4531 19.335 -26.1719
64.4531 19.335 -26.1719
14.4531 19.335 -76.1719
64.4531 19.335 -76.1719
39.4531 54.6903 -51.1719
14.4531 1.65728 -13.6719
64.4531 1.65728 -13.6719
14.4531 1.65728 -63.6719
64.4531 1.65728 -63.6719
39.4531 37.0126 -38.6719
39.4531 1.65728 -13.6719
89.4531 1.65728 -13.6719
39.4531 1.65728 -63.6719
89.4531 1.65728 -63.6719
64.4531 37.0126 -38.6719
14.4531 1.65728 -38.6719
64.4531 1.65728 -38.6719
14.4531 1.65728 -88.6719
64.4531 1.65728 -88.6719
39.4531 37.0126 -63.6719
39.4531 1.65728 -38.6719
89.4531 1.65728 -38.6719
39.4531 1.65728 -88.6719
89.4531 1.65728 -88.6719
64.4531 37.0126 -63.6719
26.9531 19.335 -26.1719
76.9531 19.335 -26.1719
26.9531 19.335 -76.1719
76.9531 19.335 -76.1719
51.9531 54.6903 -51.1719
8.20312 10.4961 -7.42188
58.2031 10.4961 -7.42188
8.20312 10.4961 -57.4219
58.2031 10.4961 -57.4219
33.2031 45.8515 -32.4219
33.2031 10.4961 -7.42188
83.2031 10.4961 -7.42188
33.2031 10.4961 -57.4219
83.2031 10.4961 -57.4219
58.2031 45.8515 -32.4219
8.20312 10.4961 -32.4219
58.2031 10.4961 -32.4219
8.20312 10.4961 -82.4219
58.2031 10.4961 -82.4219
33.2031 45.8515 -57.4219
33.2031 10.4961 -32.4219
83.2031 10.4961 -32.4219
33.2031 10.4961 -82.4219
83.2031 10.4961 -82.4219
58.2031 45.8515 -57.4219
20.7031 28.1738 -19.9219
70.7031 28.1738 -19.9219
20.7031 28.1738 -69.9219
70.7031 28.1738 -69.9219
45.7031 63.5291 -44.9219
8.20312 1.65728 -1.17188
58.2031 1.65728 -1.17188
8.20312 1.65728 -51.1719
58.2031 1.65728 -51.1719
33.2031 37.0126 -26.1719
33.2031 1.65728 -1.17188
83.2031 1.65728 -1.17188
33.2031 1.65728 -51.1719
83.2031 1.65728 -51.1719
58.2031 37.0126 -26.1719
8.20312 1.65728 -26.1719
58.2031 1.65728 -26.1719
8.20312 1.65728 -76.1719
58.2031 1.65728 -76.1719
33.2031 37.0126 -51.1719
33.2031 1.65728 -26.1719
83.2031 1.65728 -26.1719
33.2031 1.65728 -76.1719
83.2031 1.65728 -76.1719
58.2031 37.0126 -51.1719
20.7031 19.335 -13.6719
70.7031 19.335 -13.6719
20.7031 19.335 -63.6719
70.7031 19.335 -63.6719
45.7031 54.6903 -38.6719
20.7031 1.65728 -1.17188
70.7031 1.65728 -1.17188
20.7031 1.65728 -51.1719
70.7031 1.65728 -51.1719
45.7031 37.0126 -26.1719
45.7031 1.65728 -1.17188
95.7031 1.65728 -1.17188
45.7031 1.65728 -51.1719
95.7031 1.65728 -51.1719
70.7031 37.0126 -26.1719
20.7031 1.65728 -26.1719
70.7031 1.65728 -26.1719
20.7031 1.65728 -76.1719
70.7031 1.65728 -76.1719
45.7031 37.0126 -51.1719
45.7031 1.65728 -26.1719
95.7031 1.65728 -26.1719
45.7031 1.65728 -76.1719
95.7031 1.65728 -76.1719
70.7031 37.0126 -51.1719
33.2031 19.335 -13.6719
83.2031 19.335 -13.6719
33.2031 19.335 -63.6719
83.2031 19.335 -63.6719
58.2031 54.6903 -38.6719
8.20312 1.65728 -13.6719
58.2031 1.65728 -13.6719
8.20312 1.65728 -63.6719
58.2031 1.65728 -63.6719
33.2031 37.0126 -38.6719
33.2031 1.65728 -13.6719
83.2031 1.65728 -13.6719
33.2031 1.65728 -63.6719
83.2031 1.65728 -63.6719
58.2031 37.0126 -38.6719
8.20312 1.65728 -38.6719
58.2031 1.65728 -38.6719
8.20312 1.65728 -88.6719
58.2031 1.65728 -88.6719
33.2031 37.0126 -63.6719
33.2031 1.65728 -38.6719
83.2031 1.65728 -38.6719
33.2031 1.65728 -88.6719
83.2031 1.65728 -88.6719
58.2031 37.0126 -63.6719
20.7031 19.335 -26.1719
70.7031 19.335 -26.1719
20.7031 19.335 -76.1719
70.7031 19.335 -76.1719
45.7031 54.6903 -51.1719
20.7031 1.65728 -13.6719
70.7031 1.65728 -13.6719
20.7031 1.65728 -63.6719
70.7031 1.65728 -63.6719
45.7031 37.0126 -38.6719
45.7031 1.65728 -13.6719
95.7031 1.65728 -13.6719
45.7031 1.65728 -63.6719
95.7031 1.65728 -63.6719
70.7031 37.0126 -38.6719
20.7031 1.65728 -38.6719
70.7031 1.65728 -38.6719
20.7031 1.65728 -88.6719
70.7031 1.65728 -88.6719
45.7031 37.0126 -63.6719
45.7031 1.65728 -38.6719
95.7031 1.65728 -38.6719
45.7031 1.65728 -88.6719
95.7031 1.65728 -88.6719
70.7031 37.0126 -63.6719
33.2031 19.335 -26.1719
83.2031 19.335 -26.1719
33.2031 19.335 -76.1719
83.2031 19.335 -76.1719
58.2031 54.6903 -51.1719
14.4531 10.4961 -7.42188
64.4531 10.4961 -7.42188
14.4531 10.4961 -57.4219
64.4531 10.4961 -57.4219
39.4531 45.8515 -32.4219
39.4531 10.4961 -7.42188
89.4531 10.4961 -7.42188
39.4531 10.4961 -57.4219
89.4531 10.4961 -57.4219
64.4531 45.8515 -32.4219
14.4531 10.4961 -32.4219
64.4531 10.4961 -32.4219
14.4531 10.4961 -82.4219
64.4531 10.4961 -82.4219
39.4531 45.8515 -57.4219
39.4531 10.4961 -32.4219
89.4531 10.4961 -32.4219
39.4531 10.4961 -82.4219
89.4531 10.4961 -82.4219
64.4531 45.8515 -57.4219
26.9531 28.1738 -19.9219
76.9531 28.1738 -19.9219
26.9531 28.1738 -69.9219
76.9531 28.1738 -69.9219
51.9531 63.5291 -44.9219
1.95312 1.65728 -7.42188
51.9531 1.65728 -7.42188
1.95312 1.65728 -57.4219
51.9531 1.65728 -57.4219
26.9531 37.0126 -32.4219
26.9531 1.65728 -7.42188
76.9531 1.65728 -7.42188
26.9531 1.65728 -57.4219
76.9531 1.65728 -57.4219
51.9531 37.0126 -32.4219
1.95312 1.65728 -32.4219
51.9531 1.65728 -32.4219
1.95312 1.65728 -82.4219
51.9531 1.65728 -82.4219
26.9531 37.0126 -57.4219
26.9531 1.65728 -32.4219
76.9531 1.65728 -32.4219
26.9531 1.65728 -82.4219
76.9531 1.65728 -82.4219
51.9531 37.0126 -57.4219
14.4531 19.335 -19.9219
64.4531 19.335 -19.9219
14.4531 19.335 -69.9219
64.4531 19.335 -69.9219
39.4531 54.6903 -44.9219
14.4531 1.65728 -7.42188
64.4531 1.65728 -7.42188
14.4531 1.65728 -57.4219
64.4531 1.65728 -57.4219
39.4531 37.0126 -32.4219
39.4531 1.65728 -7.42188
89.4531 1.65728 -7.42188
39.4531 1.65728 -57.4219
89.4531 1.65728 -57.4219
64.4531 37.0126 -32.4219
14.4531 1.65728 -32.4219
64.4531 1.65728 -32.4219
14.4531 1.65728 -82.4219
64.4531 1.65728 -82.4219
39.4531 37.0126 -57.4219
39.4531 1.65728 -32.4219
89.4531 1.65728 -32.4219
39.4531 1.65728 -82.4219
89.4531 1.65728 -82.4219
64.4531 37.0126 -57.4219
26.9531 19.335 -19.9219
76.9531 19.335 -19.9219
26.9531 19.335 -69.9219
76.9531 19.335 -69.9219
51.9531 54.6903 -44.9219
1.95312 1.65728 -19.9219
51.9531 1.65728 -19.9219
1.95312 1.65728 -69.9219
51.9531 1.65728 -69.9219
26.9531 37.0126 -44.9219
26.9531 1.65728 -19.9219
76.9531 1.65728 -19.9219
26.9531 1.65728 -69.9219
76.9531 1.65728 -69.9219
51.9531 37.0126 -44.9219
1.95312 1.65728 -44.9219
51.9531 1.65728 -44.9219
1.95312 1.65728 -94.9219
51.9531 1.65728 -94.9219
26.9531 37.0126 -69.9219
26.9531 1.65728 -44.9219
76.9531 1.65728 -44.9219
26.9531 1.65728 -94.9219
76.9531 1.65728 -94.9219
51.9531 37.0126 -69.9219
14.4531 19.335 -32.4219
64.4531 19.335 -32.4219
14.4531 19.335 -82.4219
64.4531 19.335 -82.4219
39.4531 54.6903 -57.4219
14.4531 1.65728 -19.9219
64.4531 1.65728 -19.9219
14.4531 1.65728 -69.9219
64.4531 1.65728 -69.9219
39.4531 37.0126 -44.9219
39.4531 1.65728 -19.9219
89.4531 1.65728 -19.9219
39.4531 1.65728 -69.9219
89.4531 1.65728 -69.9219
64.4531 37.0126 -44.9219
14.4531 1.65728 -44.9219
64.4531 1.65728 -44.9219
14.4531 1.65728 -94.9219
64.4531 1.65728 -94.9219
39.4531 37.0126 -69.9219
39.4531 1.65728 -44.9219
89.4531 1.65728 -44.9219
39.4531 1.65728 -94.9219
89.4531 1.65728 -94.9219
64.4531 37.0126 -69.9219
26.9531 19.335 -32.4219
76.9531 19.335 -32.4219
26.9531 19.335 -82.4219
76.9531 19.335 -82.4219
51.9531 54.6903 -57.4219
8.20312 10.4961 -13.6719
58.2031 10.4961 -13.6719
8.20312 10.4961 -63.6719
58.2031 10.4961 -63.6719
33.2031 45.8515 -38.6719
33.2031 10.4961 -13.6719
83.2031 10.4961 -13.6719
33.2031 10.4961 -63.6719
83.2031 10.4961 -63.6719
58.2031 45.8515 -38.6719
8.20312 10.4961 -38.6719
58.2031 10.4961 -38.6719
8.20312 10.4961 -88.6719
58.2031 10.4961 -88.6719
33.2031 45.8515 -63.6719
33.2031 10.4961 -38.6719
83.2031 10.4961 -38.6719
33.2031 10.4961 -88.6719
83.2031 10.4961 -88.6719
58.2031 45.8515 -63.6719
20.7031 28.1738 -26.1719
70.7031 28.1738 -26.1719
20.7031 28.1738 -76.1719
70.7031 28.1738 -76.1719
45.7031 63.5291 -51.1719
8.20312 1.65728 -7.42188
58.2031 1.65728 -7.42188
8.20312 1.65728 -57.4219
58.2031 1.65728 -57.4219
33.2031 37.0126 -32.4219
33.2031 1.65728 -7.42188
83.2031 1.65728 -7.42188
33.2031 1.65728 -57.4219
83.2031 1.65728 -57.4219
58.2031 37.0126 -32.4219
8.20312 1.65728 -32.4219
58.2031 1.65728 -32.4219
8.20312 1.65728 -82.4219
58.2031 1.65728 -82.4219
33.2031 37.0126 -57.4219
33.2031 1.65728 -32.4219
83.2031 1.65728 -32.4219
33.2031 1.65728 -82.4219
83.2031 1.65728 -82.4219
58.2031 37.0126 -57.4219
20.7031 19.335 -19.9219
70.7031 19.335 -19.9219
20.7031 19.335 -69.9219
70.7031 19.335 -69.9219
45.7031 54.6903 -44.9219
20.7031 1.65728 -7.42188
70.7031 1.65728 -7.42188
20.7031 1.65728 -57.4219
70.7031 1.65728 -57.4219
45.7031 37.0126 -32.4219
45.7031 1.65728 -7.42188
95.7031 1.65728 -7.42188
45.7031 1.65728 -57.4219
95.7031 1.65728 -57.4219
70.7031 37.0126 -32.4219
20.7031 1.65728 -32.4219
70.7031 1.65728 -32.4219
20.7031 1.65728 -82.4219
70.7031 1.65728 -82.4219
45.7031 37.0126 -57.4219
45.7031 1.65728 -32.4219
95.7031 1.65728 -32.4219
45.7031 1.65728 -82.4219
95.7031 1.65728 -82.4219
70.7031 37.0126 -57.4219
33.2031 19.335 -19.9219
83.2031 19.335 -19.9219
33.2031 19.335 -69.9219
83.2031 19.335 -69.9219
58.2031 54.6903 -44.9219
8.20312 1.65728 -19.9219
58.2031 1.65728 -19.9219
8.20312 1.65728 -69.9219
58.2031 1.65728 -69.9219
33.2031 37.0126 -44.9219
33.2031 1.65728 -19.9219
83.2031 1.65728 -19.9219
33.2031 1.65728 -69.9219
83.2031 1.65728 -69.9219
58.2031 37.0126 -44.9219
8.20312 1.65728 -44.9219
58.2031 1.65728 -44.9219
8.20312 1.65728 -94.9219
58.2031 1.65728 -94.9219
33.2031 37.0126 -69.9219
33.2031 1.65728 -44.9219
83.2031 1.65728 -44.9219
33.2031 1.65728 -94.9219
83.2031 1.65728 -94.9219
58.2031 37.0126 -69.9219
20.7031 19.335 -32.4219
70.7031 19.335 -32.4219
20.7031 19.335 -82.4219
70.7031 19.335 -82.4219
45.7031 54.6903 -57.4219
20.7031 1.65728 -19.9219
70.7031 1.65728 -19.9219
20.7031 1.65728 -69.9219
70.7031 1.65728 -69.9219
45.7031 37.0126 -44.9219
45.7031 1.65728 -19.9219
95.7031 1.65728 -19.9219
45.7031 1.65728 -69.9219
95.7031 1.65728 -69.9219
70.7031 37.0126 -44.9219
20.7031 1.65728 -44.9219
70.7031 1.65728 -44.9219
20.7031 1.65728 -94.9219
70.7031 1.65728 -94.9219
45.7031 37.0126 -69.9219
45.7031 1.65728 -44.9219
95.7031 1.65728 -44.9219
45.7031 1.65728 -94.9219
95.7031 1.65728 -94.9219
70.7031 37.0126 -69.9219
33.2031 19.335 -32.4219
83.2031 19.335 -32.4219
33.2031 19.335 -82.4219
83.2031 19.335 -82.4219
58.2031 54.6903 -57.4219
14.4531 10.4961 -13.6719
64.4531 10.4961 -13.6719
14.4531 10.4961 -63.6719
64.4531 10.4961 -63.6719
39.4531 45.8515 -38.6719
39.4531 10.4961 -13.6719
89.4531 10.4961 -13.6719
39.4531 10.4961 -63.6719
89.4531 10.4961 -63.6719
64.4531 45.8515 -38.6719
14.4531 10.4961 -38.6719
64.4531 10.4961 -38.6719
14.4531 10.4961 -88.6719
64.4531 10.4961 -88.6719
39.4531 45.8515 -63.6719
39.4531 10.4961 -38.6719
89.4531 10.4961 -38.6719
39.4531 10.4961 -88.6719
89.4531 10.4961 -88.6719
64.4531 45.8515 -63.6719
26.9531 28.1738 -26.1719
76.9531 28.1738 -26.1719
26.9531 28.1738 -76.1719
76.9531 28.1738 -76.1719
51.9531 63.5291 -51.1719
5.07812 6.0767 -4.29688
55.0781 6.0767 -4.29688
5.07812 6.0767 -54.2969
55.0781 6.0767 -54.2969
30.0781 41.432 -29.2969
30.0781 6.0767 -4.29688
80.0781 6.0767 -4.29688
30.0781 6.0767 -54.2969
80.0781 6.0767 -54.2969
55.0781 41.432 -29.2969
5.07812 6.0767 -29.2969
55.0781 6.0767 -29.2969
5.07812 6.0767 -79.2969
55.0781 6.0767 -79.2969
30.0781 41.432 -54.2969
30.0781 6.0767 -29.2969
80.0781 6.0767 -29.2969
30.0781 6.0767 -79.2969
80.0781 6.0767 -79.2969
55.0781 41.432 -54.2969
17.5781 23.7544 -16.7969
67.5781 23.7544 -16.7969
17.5781 23.7544 -66.7969
67.5781 23.7544 -66.7969
42.5781 59.1097 -41.7969
17.5781 6.0767 -4.29688
67.5781 6.0767 -4.29688
17.5781 6.0767 -54.2969
67.5781 6.0767 -54.2969
42.5781 41.432 -29.2969
42.5781 6.0767 -4.29688
92.5781 6.0767 -4.29688
42.5781 6.0767 -54.2969
92.5781 6.0767 -54.2969
67.5781 41.432 -29.2969
17.5781 6.0767 -29.2969
67.5781 6.0767 -29.2969
17.5781 6.0767 -79.2969
67.5781 6.0767 -79.2969
42.5781 41.432 -54.2969
42.5781 6.0767 -29.2969
92.5781 6.0767 -29.2969
42.5781 6.0767 -79.2969
92.5781 6.0767 -79.2969
67.5781 41.432 -54.2969
30.0781 23.7544 -16.7969
80.0781 23.7544 -16.7969
30.0781 23.7544 -66.7969
80.0781 23.7544 -66.7969
55.0781 59.1097 -41.7969
5.07812 6.0767 -16.7969
55.0781 6.0767 -16.7969
5.07812 6.0767 -66.7969
55.0781 6.0767 -66.7969
30.0781 41.432 -41.7969
30.0781 6.0767 -16.7969
80.0781 6.0767 -16.7969
30.0781 6.0767 -66.7969
80.0781 6.0767 -66.7969
55.0781 41.432 -41.7969
5.07812 6.0767 -41.7969
55.0781 6.0767 -41.7969
5.07812 6.0767 -91.7969
55.0781 6.0767 -91.7969
30.0781 41.432 -66.7969
30.0781 6.0767 -41.7969
80.0781 6.0767 -41.7969
30.0781 6.0767 -91.7969
80.0781 6.0767 -91.7969
55.0781 41.432 -66.7969
17.5781 23.7544 -29.2969
67.5781 23.7544 -29.2969
17.5781 23.7544 -79.2969
67.5781 23.7544 -79.2969
42.5781 59.1097 -54.2969
17.5781 6.0767 -16.7969
67.5781 6.0767 -16.7969
17.5781 6.0767 -66.7969
67.5781 6.0767 -66.7969
42.5781 41.432 -41.7969
42.5781 6.0767 -16.7969
92.5781 6.0767 -16.7969
42.5781 6.0767 -66.7969
92.5781 6.0767 -66.7969
67.5781 41.432 -41.7969
17.5781 6.0767 -41.7969
67.5781 6.0767 -41.7969
17.5781 6.0767 -91.7969
67.5781 6.0767 -91.7969
42.5781 41.432 -66.7969
42.5781 6.0767 -41.7969
92.5781 6.0767 -41.7969
42.5781 6.0767 -91.7969
92.5781 6.0767 -91.7969
67.5781 41.432 -66.7969
30.0781 23.7544 -29.2969
80.0781 23.7544 -29.2969
30.0781 23.7544 -79.2969
80.0781 23.7544 -79.2969
55.0781 59.1097 -54.2969
11.3281 14.9155 -10.5469
61.3281 14.9155 -10.5469
11.3281 14.9155 -60.5469
61.3281 14.9155 -60.5469
36.3281 50.2709 -35.5469
36.3281 14.9155 -10.5469
86.3281 14.9155 -10.5469
36.3281 14.9155 -60.5469
86.3281 14.9155 -60.5469
61.3281 50.2709 -35.5469
11.3281 14.9155 -35.5469
61.3281 14.9155 -35.5469
11.3281 14.9155 -85.5469
61.3281 14.9155 -85.5469
36.3281 50.2709 -60.5469
36.3281 14.9155 -35.5469
86.3281 14.9155 -35.5469
36.3281 14.9155 -85.5469
86.3281 14.9155 -85.5469
61.3281 50.2709 -60.5469
23.8281 32.5932 -23.0469
73.8281 32.5932 -23.0469
23.8281 32.5932 -73.0469
73.8281 32.5932 -73.0469
48.8281 67.9485 -48.0469
5.07812 1.65728 -1.17188
55.0781 1.65728 -1.17188
5.07812 1.65728 -51.1719
55.0781 1.65728 -51.1719
30.0781 37.0126 -26.1719
30.0781 1.65728 -1.17188
80.0781 1.65728 -1.17188
30.0781 1.65728 -51.1719
80.0781 1.65728 -51.1719
55.0781 37.0126 -26.1719
5.07812 1.65728 -26.1719
55.0781 1.65728 -26.1719
5.07812 1.65728 -76.1719
55.0781 1.65728 -76.1719
30.0781 37.0126 -51.1719
30.0781 1.65728 -26.1719
80.0781 1.65728 -26.1719
30.0781 1.65728 -76.1719
80.0781 1.65728 -76.1719
55.0781 37.0126 -51.1719
17.5781 19.335 -13.6719
67.5781 19.335 -13.6719
17.5781 19.335 -63.6719
67.5781 19.335 -63.6719
42.5781 54.6903 -38.6719
17.5781 1.65728 -1.17188
67.5781 1.65728 -1.17188
17.5781 1.65728 -51.1719
67.5781 1.65728 -51.1719
42.5781 37.0126 -26.1719
42.5781 1.65728 -1.17188
92.5781 1.65728 -1.17188
42.5781 1.65728 -51.1719
92.5781 1.65728 -51.1719
67.5781 37.0126 -26.1719
17.5781 1.65728 -26.1719
67.5781 1.65728 -26.1719
17.5781 1.65728 -76.1719
67.5781 1.65728 -76.1719
42.5781 37.0126 -51.1719
42.5781 1.65728 -26.1719
92.5781 1.65728 -26.1719
42.5781 1.65728 -76.1719
92.5781 1.65728 -76.1719
67.5781 37.0126 -51.1719
30.0781 19.335 -13.6719
80.0781 19.335 -13.6719
30.0781 19.335 -63.6719
80.0781 19.335 -63.6719
55.0781 54.6903 -38.6719
5.07812 1.65728 -13.6719
55.0781 1.65728 -13.6719
5.07812 1.65728 -63.6719
55.0781 1.65728 -63.6719
30.0781 37.0126 -38.6719
30.0781 1.65728 -13.6719
80.0781 1.65728 -13.6719
30.0781 1.65728 -63.6719
80.0781 1.65728 -63.6719
55.0781 37.0126 -38.6719
5.07812 1.65728 -38.6719
55.0781 1.65728 -38.6719
5.07812 1.65728 -88.6719
55.0781 1.65728 -88.6719
30.0781 37.0126 -63.6719
30.0781 1.65728 -38.6719
80.0781 1.65728 -38.6719
30.0781 1.65728 -88.6719
80.0781 1.65728 -88.6719
55.0781 37.0126 -63.6719
17.5781 19.335 -26.1719
67.5781 19.335 -26.1719
17.5781 19.335 -76.1719
67.5781 19.335 -76.1719
42.5781 54.6903 -51.1719
17.5781 1.65728 -13.6719
67.5781 1.65728 -13.6719
17.5781 1.65728 -63.6719
67.5781 1.65728 -63.6719
42.5781 37.0126 -38.6719
42.5781 1.65728 -13.6719
92.5781 1.65728 -13.6719
42.5781 1.65728 -63.6719
92.5781 1.65728 -63.6719
67.5781 37.0126 -38.6719
17.5781 1.65728 -38.6719
67.5781 1.65728 -38.6719
17.5781 1.65728 -88.6719
67.5781 1.65728 -88.6719
42.5781 37.0126 -63.6719
42.5781 1.65728 -38.6719
92.5781 1.65728 -38.6719
42.5781 1.65728 -88.6719
92.5781 1.65728 -88.6719
67.5781 37.0126 -63.6719
30.0781 19.335 -26.1719
80.0781 19.335 -26.1719
30.0781 19.335 -76.1719
80.0781 19.335 -76.1719
55.0781 54.6903 -51.1719
11.3281 10.4961 -7.42188
61.3281 10.4961 -7.42188
11.3281 10.4961 -57.4219
61.3281 10.4961 -57.4219
36.3281 45.8515 -32.4219
36.3281 10.4961 -7.42188
86.3281 10.4961 -7.42188
36.3281 10.4961 -57.4219
86.3281 10.4961 -57.4219
61.3281 45.8515 -32.4219
11.3281 10.4961 -32.4219
61.3281 10.4961 -32.4219
11.3281 10.4961 -82.4219
61.3281 10.4961 -82.4219
36.3281 45.8515 -57.4219
36.3281 10.4961 -32.4219
86.3281 10.4961 -32.4219
36.3281 10.4961 -82.4219
86.3281 10.4961 -82.4219
61.3281 45.8515 -57.4219
23.8281 28.1738 -19.9219
73.8281 28.1738 -19.9219
23.8281 28.1738 -69.9219
73.8281 28.1738 -69.9219
48.8281 63.5291 -44.9219
11.3281 1.65728 -1.17188
61.3281 1.65728 -1.17188
11.3281 1.65728 -51.1719
61.3281 1.65728 -51.1719
36.3281 37.0126 -26.1719
36.3281 1.65728 -1.17188
86.3281 1.65728 -1.17188
36.3281 1.65728 -51.1719
86.3281 1.65728 -51.1719
61.3281 37.0126 -26.1719
11.3281 1.65728 -26.1719
61.3281 1.65728 -26.1719
11.3281 1.65728 -76.1719
61.3281 1.65728 -76.1719
36.3281 37.0126 -51.1719
36.3281 1.65728 -26.1719
86.3281 1.65728 -26.1719
36.3281 1.65728 -76.1719
86.3281 1.65728 -76.1719
61.3281 37.0126 -51.1719
23.8281 19.335 -13.6719
73.8281 19.335 -13.6719
23.8281 19.335 -63.6719
73.8281 19.335 -63.6719
48.8281 54.6903 -38.6719
23.8281 1.65728 -1.17188
73.8281 1.65728 -1.17188
23.8281 1.65728 -51.1719
73.8281 1.65728 -51.1719
48.8281 37.0126 -26.1719
48.8281 1.65728 -1.17188
98.8281 1.65728 -1.17188
48.8281 1.65728 -51.1719
98.8281 1.65728 -51.1719
73.8281 37.0126 -26.1719
23.8281 1.65728 -26.1719
73.8281 1.65728 -26.1719
23.8281 1.65728 -76.1719
73.8281 1.65728 -76.1719
48.8281 37.0126 -51.1719
48.8281 1.65728 -26.1719
98.8281 1.65728 -26.1719
48.8281 1.65728 -76.1719
98.8281 1.65728 -76.1719
73.8281 37.0126 -51.1719
36.3281 19.335 -13.6719
86.3281 19.335 -13.6719
36.3281 19.335 -63.6719
86.3281 19.335 -63.6719
61.3281 54.6903 -38.6719
11.3281 1.65728 -13.6719
61.3281 1.65728 -13.6719
11.3281 1.65728 -63.6719
61.3281 1.65728 -63.6719
36.3281 37.0126 -38.6719
36.3281 1.65728 -13.6719
86.3281 1.65728 -13.6719
36.3281 1.65728 -63.6719
86.3281 1.65728 -63.6719
61.3281 37.0126 -38.6719
11.3281 1.65728 -38.6719
61.3281 1.65728 -38.6719
11.3281 1.65728 -88.6719
61.3281 1.65728 -88.6719
36.3281 37.0126 -63.6719
36.3281 1.65728 -38.6719
86.3281 1.65728 -38.6719
36.3281 1.65728 -88.6719
86.3281 1.65728 -88.6719
61.3281 37.0126 -63.6719
23.8281 19.335 -26.1719
73.8281 19.335 -26.1719
23.8281 19.335 -76.1719
73.8281 19.335 -76.1719
48.8281 54.6903 -51.1719
23.8281 1.65728 -13.6719
73.8281 1.65728 -13.6719
23.8281 1.65728 -63.6719
73.8281 1.65728 -63.6719
48.8281 37.0126 -38.6719
48.8281 1.65728 -13.6719
98.8281 1.65728 -13.6719
48.8281 1.65728 -63.6719
98.8281 1.65728 -63.6719
73.8281 37.0126 -38.6719
23.8281 1.65728 -38.6719
73.8281 1.65728 -38.6719
23.8281 1.65728 -88.6719
73.8281 1.65728 -88.6719
48.8281 37.0126 -63.6719
48.8281 1.65728 -38.6719
98.8281 1.65728 -38.6719
48.8281 1.65728 -88.6719
98.8281 1.65728 -88.6719
73.8281 37.0126 -63.6719
36.3281 19.335 -26.1719
86.3281 19.335 -26.1719
36.3281 19.335 -76.1719
86.3281 19.335 -76.1719
61.3281 54.6903 -51.1719
17.5781 10.4961 -7.42188
67.5781 10.4961 -7.42188
17.5781 10.4961 -57.4219
67.5781 10.4961 -57.4219
42.5781 45.8515 -32.4219
42.5781 10.4961 -7.42188
92.5781 10.4961 -7.42188
42.5781 10.4961 -57.4219
92.5781 10.4961 -57.4219
67.5781 45.8515 -32.4219
17.5781 10.4961 -32.4219
67.5781 10.4961 -32.4219
17.5781 10.4961 -82.4219
67.5781 10.4961 -82.4219
42.5781 45.8515 -57.4219
42.5781 10.4961 -32.4219
92.5781 10.4961 -32.4219
42.5781 10.4961 -82.4219
92.5781 10.4961 -82.4219
67.5781 45.8515 -57.4219
30.0781 28.1738 -19.9219
80.0781 28.1738 -19.9219
30.0781 28.1738 -69.9219
80.0781 28.1738 -69.9219
55.0781 63.5291 -44.9219
5.07812 1.65728 -7.42188
55.0781 1.65728 -7.42188
5.07812 1.65728 -57.4219
55.0781 1.65728 -57.4219
30.0781 37.0126 -32.4219
30.0781 1.65728 -7.42188
80.0781 1.65728 -7.42188
30.0781 1.65728 -57.4219
80.0781 1.65728 -57.4219
55.0781 37.0126 -32.4219
5.07812 1.65728 -32.4219
55.0781 1.65728 -32.4219
5.07812 1.65728 -82.4219
55.0781 1.65728 -82.4219
30.0781 37.0126 -57.4219
30.0781 1.65728 -32.4219
80.0781 1.65728 -32.4219
30.0781 1.65728 -82.4219
80.0781 1.65728 -82.4219
55.0781 37.0126 -57.4219
17.5781 19.335 -19.9219
67.5781 19.335 -19.9219
17.5781 19.335 -69.9219
67.5781 19.335 -69.9219
42.5781 54.6903 -44.9219
17.5781 1.65728 -7.42188
67.5781 1.65728 -7.42188
17.5781 1.65728 -57.4219
67.5781 1.65728 -57.4219
42.5781 37.0126 -32.4219
42.5781 1.65728 -7.42188
92.5781 1.65728 -7.42188
42.5781 1.65728 -57.4219
92.5781 1.65728 -57.4219
67.5781 37.0126 -32.4219
17.5781 1.65728 -32.4219
67.5781 1.65728 -32.4219
17.5781 1.65728 -82.4219
67.5781 1.65728 -82.4219
42.5781 37.0126 -57.4219
42.5781 1.65728 -32.4219
92.5781 1.65728 -32.4219
42.5781 1.65728 -82.4219
92.5781 1.65728 -82.4219
67.5781 37.0126 -57.4219
30.0781 19.335 -19.9219
80.0781 19.335 -19.9219
30.0781 19.335 -69.9219
80.0781 19.335 -69.9219
55.0781 54.6903 -44.9219
5.07812 1.65728 -19.9219
55.0781 1.65728 -19.9219
5.07812 1.65728 -69.9219
55.0781 1.65728 -69.9219
30.0781 37.0126 -44.9219
30.0781 1.65728 -19.9219
80.0781 1.65728 -19.9219
30.0781 1.65728 -69.9219
80.0781 1.65728 -69.9219
55.0781 37.0126 -44.9219
5.07812 1.65728 -44.9219
55.0781 1.65728 -44.9219
5.07812 1.65728 -94.9219
55.0781 1.65728 -94.9219
30.0781 37.0126 -69.9219
30.0781 1.65728 -44.9219
80.0781 1.65728 -44.9219
30.0781 1.65728 -94.9219
80.0781 1.65728 -94.9219
55.0781 37.0126 -69.9219
17.5781 19.335 -32.4219
67.5781 19.335 -32.4219
17.5781 19.335 -82.4219
67.5781 19.335 -82.4219
42.5781 54.6903 -57.4219
17.5781 1.65728 -19.9219
67.5781 1.65728 -19.9219
17.5781 1.65728 -69.9219
67.5781 1.65728 -69.9219
42.5781 37.0126 -44.9219
42.5781 1.65728 -19.9219
92.5781 1.65728 -19.9219
42.5781 1.65728 -69.9219
92.5781 1.65728 -69.9219
67.5781 37.0126 -44.9219
17.5781 1.65728 -44.9219
67.5781 1.65728 -44.9219
17.5781 1.65728 -94.9219
67.5781 1.65728 -94.9219
42.5781 37.0126 -69.9219
42.5781 1.65728 -44.9219
92.5781 1.65728 -44.9219
42.5781 1.65728 -94.9219
92.5781 1.65728 -94.9219
67.5781 37.0126 -69.9219
30.0781 19.335 -32.4219
80.0781 19.335 -32.4219
30.0781 19.335 -82.4219
80.0781 19.335 -82.4219
55.0781 54.6903 -57.4219
11.3281 10.4961 -13.6719
61.3281 10.4961 -13.6719
11.3281 10.4961 -63.6719
61.3281 10.4961 -63.6719
36.3281 45.8515 -38.6719
36.3281 10.4961 -13.6719
86.3281 10.4961 -13.6719
36.3281 10.4961 -63.6719
86.3281 10.4961 -63.6719
61.3281 45.8515 -38.6719
11.3281 10.4961 -38.6719
61.3281 10.4961 -38.6719
11.3281 10.4961 -88.6719
61.3281 10.4961 -88.6719
36.3281 45.8515 -63.6719
36.3281 10.4961 -38.6719
86.3281 10.4961 -38.6719
36.3281 10.4961 -88.6719
86.3281 10.4961 -88.6719
61.3281 45.8515 -63.6719
23.8281 28.1738 -26.1719
73.8281 28.1738 -26.1719
23.8281 28.1738 -76.1719
73.8281 28.1738 -76.1719
48.8281 63.5291 -51.1719
11.3281 1.65728 -7.42188
61.3281 1.65728 -7.42188
11.3281 1.65728 -57.4219
61.3281 1.65728 -57.4219
36.3281 37.0126 -32.4219
36.3281 1.65728 -7.42188
86.3281 1.65728 -7.42188
36.3281 1.65728 -57.4219
86.3281 1.65728 -57.4219
61.3281 37.0126 -32.4219
11.3281 1.65728 -32.4219
61.3281 1.65728 -32.4219
11.3281 1.65728 -82.4219
61.3281 1.65728 -82.4219
36.3281 37.0126 -57.4219
36.3281 1.65728 -32.4219
86.3281 1.65728 -32.4219
36.3281 1.65728 -82.4219
86.3281 1.65728 -82.4219
61.3281 37.0126 -57.4219
23.8281 19.335 -19.9219
73.8281 19.335 -19.9219
23.8281 19.335 -69.9219
73.8281 19.335 -69.9219
48.8281 54.6903 -44.9219
23.8281 1.65728 -7.42188
73.8281 1.65728 -7.42188
23.8281 1.65728 -57.4219
73.8281 1.65728 -57.4219
48.8281 37.0126 -32.4219
48.8281 1.65728 -7.42188
98.8281 1.65728 -7.42188
48.8281 1.65728 -57.4219
98.8281 1.65728 -57.4219
73.8281 37.0126 -32.4219
23.8281 1.65728 -32.4219
73.8281 1.65728 -32.4219
23.8281 1.65728 -82.4219
73.8281 1.65728 -82.4219
48.8281 37.0126 -57.4219
48.8281 1.65728 -32.4219
98.8281 1.65728 -32.4219
48.8281 1.65728 -82.4219
98.8281 1.65728 -82.4219
73.8281 37.0126 -57.4219
36.3281 19.335 -19.9219
86.3281 19.335 -19.9219
36.3281 19.335 -69.9219
86.3281 19.335 -69.9219
61.3281 54.6903 -44.9219
11.3281 1.65728 -19.9219
61.3281 1.65728 -19.9219
11.3281 1.65728 -69.9219
61.3281 1.65728 -69.9219
36.3281 37.0126 -44.9219
36.3281 1.65728 -19.9219
86.3281 1.65728 -19.9219
36.3281 1.65728 -69.9219
86.3281 1.65728 -69.9219
61.3281 37.0126 -44.9219
11.3281 1.65728 -44.9219
61.3281 1.65728 -44.9219
11.3281 1.65728 -94.9219
61.3281 1.65728 -94.9219
36.3281 37.0126 -69.9219
36.3281 1.65728 -44.9219
86.3281 1.65728 -44.9219
36.3281 1.65728 -94.9219
86.3281 1.65728 -94.9219
61.3281 37.0126 -69.9219
23.8281 19.335 -32.4219
73.8281 19.335 -32.4219
23.8281 19.335 -82.4219
73.8281 19.335 -82.4219
48.8281 54.6903 -57.4219
23.8281 1.65728 -19.9219
73.8281 1.65728 -19.9219
23.8281 1.65728 -69.9219
73.8281 1.65728 -69.9219
48.8281 37.0126 -44.9219
48.8281 1.65728 -19.9219
98.8281 1.65728 -19.9219
48.8281 1.65728 -69.9219
98.8281 1.65728 -69.9219
73.8281 37.0126 -44.9219
23.8281 1.65728 -44.9219
73.8281 1.65728 -44.9219
23.8281 1.65728 -94.9219
73.8281 1.65728 -94.9219
48.8281 37.0126 -69.9219
48.8281 1.65728 -44.9219
98.8281 1.65728 -44.9219
48.8281 1.65728 -94.9219
98.8281 1.65728 -94.9219
73.8281 37.0126 -69.9219
36.3281 19.335 -32.4219
86.3281 19.335 -32.4219
36.3281 19.335 -82.4219
86.3281 19.335 -82.4219
61.3281 54.6903 -57.4219
17.5781 10.4961 -13.6719
67.5781 10.4961 -13.6719
17.5781 10.4961 -63.6719
67.5781 10.4961 -63.6719
42.5781 45.8515 -38.6719
42.5781 10.4961 -13.6719
92.5781 10.4961 -13.6719
42.5781 10.4961 -63.6719
92.5781 10.4961 -63.6719
67.5781 45.8515 -38.6719
17.5781 10.4961 -38.6719
67.5781 10.4961 -38.6719
17.5781 10.4961 -88.6719
67.5781 10.4961 -88.6719
42.5781 45.8515 -63.6719
42.5781 10.4961 -38.6719
92.5781 10.4961 -38.6719
42.5781 10.4961 -88.6719
92.5781 10.4961 -88.6719
67.5781 45.8515 -63.6719
30.0781 28.1738 -26.1719
80.0781 28.1738 -26.1719
30.0781 28.1738 -76.1719
80.0781 28.1738 -76.1719
55.0781 63.5291 -51.1719
8.20312 6.0767 -4.29688
58.2031 6.0767 -4.29688
8.20312 6.0767 -54.2969
58.2031 6.0767 -54.2969
33.2031 41.432 -29.2969
33.2031 6.0767 -4.29688
83.2031 6.0767 -4.29688
33.2031 6.0767 -54.2969
83.2031 6.0767 -54.2969
58.2031 41.432 -29.2969
8.20312 6.0767 -29.2969
58.2031 6.0767 -29.2969
8.20312 6.0767 -79.2969
58.2031 6.0767 -79.2969
33.2031 41.432 -54.2969
33.2031 6.0767 -29.2969
83.2031 6.0767 -29.2969
33.2031 6.0767 -79.2969
83.2031 6.0767 -79.2969
58.2031 41.432 -54.2969
20.7031 23.7544 -16.7969
70.7031 23.7544 -16.7969
20.7031 23.7544 -66.7969
70.7031 23.7544 -66.7969
45.7031 59.1097 -41.7969
20.7031 6.0767 -4.29688
70.7031 6.0767 -4.29688
20.7031 6.0767 -54.2969
70.7031 6.0767 -54.2969
45.7031 41.432 -29.2969
45.7031 6.0767 -4.29688
95.7031 6.0767 -4.29688
45.7031 6.0767 -54.2969
95.7031 6.0767 -54.2969
70.7031 41.432 -29.2969
20.7031 6.0767 -29.2969
70.7031 6.0767 -29.2969
20.7031 6.0767 -79.2969
70.7031 6.0767 -79.2969
45.7031 41.432 -54.2969
45.7031 6.0767 -29.2969
95.7031 6.0767 -29.2969
45.7031 6.0767 -79.2969
95.7031 6.0767 -79.2969
70.7031 41.432 -54.2969
33.2031 23.7544 -16.7969
83.2031 23.7544 -16.7969
33.2031 23.7544 -66.7969
83.2031 23.7544 -66.7969
58.2031 59.1097 -41.7969
8.20312 6.0767 -16.7969
58.2031 6.0767 -16.7969
8.20312 6.0767 -66.7969
58.2031 6.0767 -66.7969
33.2031 41.432 -41.7969
33.2031 6.0767 -16.7969
83.2031 6.0767 -16.7969
33.2031 6.0767 -66.7969
83.2031 6.0767 -66.7969
58.2031 41.432 -41.7969
8.20312 6.0767 -41.7969
58.2031 6.0767 -41.7969
8.20312 6.0767 -91.7969
58.2031 6.0767 -91.7969
33.2031 41.432 -66.7969
33.2031 6.0767 -41.7969
83.2031 6.0767 -41.7969
33.2031 6.0767 -91.7969
83.2031 6.0767 -91.7969
58.2031 41.432 -66.7969
20.7031 23.7544 -29.2969
70.7031 23.7544 -29.2969
20.7031 23.7544 -79.2969
70.7031 23.7544 -79.2969
45.7031 59.1097 -54.2969
20.7031 6.0767 -16.7969
70.7031 6.0767 -16.7969
20.7031 6.0767 -66.7969
70.7031 6.0767 -66.7969
45.7031 41.432 -41.7969
45.7031 6.0767 -16.7969
95.7031 6.0767 -16.7969
45.7031 6.0767 -66.7969
95.7031 6.0767 -66.7969
70.7031 41.432 -41.7969
20.7031 6.0767 -41.7969
70.7031 6.0767 -41.7969
20.7031 6.0767 -91.7969
70.7031 6.0767 -91.7969
45.7031 41.432 -66.7969
45.7031 6.0767 -41.7969
95.7031 6.0767 -41.7969
45.7031 6.0767 -91.7969
95.7031 6.0767 -91.7969
70.7031 41.432 -66.7969
33.2031 23.7544 -29.2969
83.2031 23.7544 -29.2969
33.2031 23.7544 -79.2969
83.2031 23.7544 -79.2969
58.2031 59.1097 -54.2969
14.4531 14.9155 -10.5469
64.4531 14.9155 -10.5469
14.4531 14.9155 -60.5469
64.4531 14.9155 -60.5469
39.4531 50.2709 -35.5469
39.4531 14.9155 -10.5469
89.4531 14.9155 -10.5469
39.4531 14.9155 -60.5469
89.4531 14.9155 -60.5469
64.4531 50.2709 -35.5469
14.4531 14.9155 -35.5469
64.4531 14.9155 -35.5469
14.4531 14.9155 -85.5469
64.4531 14.9155 -85.5469
39.4531 50.2709 -60.5469
39.4531 14.9155 -35.5469
89.4531 14.9155 -35.5469
39.4531 14.9155 -85.5469
89.4531 14.9155 -85.5469
64.4531 50.2709 -60.5469
26.9531 32.5932 -23.0469
76.9531 32.5932 -23.0469
26.9531 32.5932 -73.0469
76.9531 32.5932 -73.0469
51.9531 67.9485 -48.0469
1.95312 1.65728 -4.29688
51.9531 1.65728 -4.29688
1.95312 1.65728 -54.2969
51.9531 1.65728 -54.2969
26.9531 37.0126 -29.2969
26.9531 1.65728 -4.29688
76.9531 1.65728 -4.29688
26.9531 1.65728 -54.2969
76.9531 1.65728 -54.2969
51.9531 37.0126 -29.2969
1.95312 1.65728 -29.2969
51.9531 1.65728 -29.2969
1.95312 1.65728 -79.2969
51.9531 1.65728 -79.2969
26.9531 37.0126 -54.2969
26.9531 1.65728 -29.2969
76.9531 1.65728 -29.2969
26.9531 1.65728 -79.2969
76.9531 1.65728 -79.2969
51.9531 37.0126 -54.2969
14.4531 19.335 -16.7969
64.4531 19.335 -16.7969
14.4531 19.335 -66.7969
64.4531 19.335 -66.7969
39.4531 54.6903 -41.7969
14.4531 1.65728 -4.29688
64.4531 1.65728 -4.29688
14.4531 1.65728 -54.2969
64.4531 1.65728 -54.2969
39.4531 37.0126 -29.2969
39.4531 1.65728 -4.29688
89.4531 1.65728 -4.29688
39.4531 1.65728 -54.2969
89.4531 1.65728 -54.2969
64.4531 37.0126 -29.2969
14.4531 1.65728 -29.2969
64.4531 1.65728 -29.2969
14.4531 1.65728 -79.2969
64.4531 1.65728 -79.2969
39.4531 37.0126 -54.2969
39.4531 1.65728 -29.2969
89.4531 1.65728 -29.2969
39.4531 1.65728 -79.2969
89.4531 1.65728 -79.2969
64.4531 37.0126 -54.2969
26.9531 19.335 -16.7969
76.9531 19.335 -16.7969
26.9531 19.335 -66.7969
76.9531 19.335 -66.7969
51.9531 54.6903 -41.7969
1.95312 1.65728 -16.7969
51.9531 1.65728 -16.7969
1.95312 1.65728 -66.7969
51.9531 1.65728 -66.7969
26.9531 37.0126 -41.7969
26.9531 1.65728 -16.7969
76.9531 1.65728 -16.7969
26.9531 1.65728 -66.7969
76.9531 1.65728 -66.7969
51.9531 37.0126 -41.7969
1.95312 1.65728 -41.7969
51.9531 1.65728 -41.7969
1.95312 1.65728 -91.7969
51.9531 1.65728 -91.7969
26.9531 37.0126 -66.7969
26.9531 1.65728 -41.7969
76.9531 1.65728 -41.7969
26.9531 1.65728 -91.7969
76.9531 1.65728 -91.7969
51.9531 37.0126 -66.7969
14.4531 19.335 -29.2969
64.4531 19.335 -29.2969
14.4531 19.335 -79.2969
64.4531 19.335 -79.2969
39.4531 54.6903 -54.2969
14.4531 1.65728 -16.7969
64.4531 1.65728 -16.7969
14.4531 1.65728 -66.7969
64.4531 1.65728 -66.7969
39.4531 37.0126 -41.7969
39.4531 1.65728 -16.7969
89.4531 1.65728 -16.7969
39.4531 1.65728 -66.7969
89.4531 1.65728 -66.7969
64.4531 37.0126 -41.7969
14.4531 1.65728 -41.7969
64.4531 1.65728 -41.7969
14.4531 1.65728 -91.7969
64.4531 1.65728 -91.7969
39.4531 37.0126 -66.7969
39.4531 1.65728 -41.7969
89.4531 1.65728 -41.7969
39.4531 1.65728 -91.7969
89.4531 1.65728 -91.7969
64.4531 37.0126 -66.7969
26.9531 19.335 -29.2969
76.9531 19.335 -29.2969
26.9531 19.335 -79.2969
76.9531 19.335 -79.2969
51.9531 54.6903 -54.2969
8.20312 10.4961 -10.5469
58.2031 10.4961 -10.5469
8.20312 10.4961 -60.5469
58.2031 10.4961 -60.5469
33.2031 45.8515 -35.5469
33.2031 10.4961 -10.5469
83.2031 10.4961 -10.5469
33.2031 10.4961 -60.5469
83.2031 10.4961 -60.5469
58.2031 45.8515 -35.5469
8.20312 10.4961 -35.5469
58.2031 10.4961 -35.5469
8.20312 10.4961 -85.5469
58.2031 10.4961 -85.5469
33.2031 45.8515 -60.5469
33.2031 10.4961 -35.5469
83.2031 10.4961 -35.5469
33.2031 10.4961 -85.5469
83.2031 10.4961 -85.5469
58.2031 45.8515 -60.5469
20.7031 28.1738 -23.0469
70.7031 28.1738 -23.0469
20.7031 28.1738 -73.0469
70.7031 28.1738 -73.0469
45.7031 63.5291 -48.0469
8.20312 1.65728 -4.29688
58.2031 1.65728 -4.29688
8.20312 1.65728 -54.2969
58.2031 1.65728 -54.2969
33.2031 37.0126 -29.2969
33.2031 1.65728 -4.29688
83.2031 1.65728 -4.29688
33.2031 1.65728 -54.2969
83.2031 1.65728 -54.2969
58.2031 37.0126 -29.2969
8.20312 1.65728 -29.2969
58.2031 1.65728 -29.2969
8.20312 1.65728 -79.2969
58.2031 1.65728 -79.2969
33.2031 37.0126 -54.2969
33.2031 1.65728 -29.2969
83.2031 1.65728 -29.2969
33.2031 1.65728 -79.2969
83.2031 1.65728 -79.2969
58.2031 37.0126 -54.2969
20.7031 19.335 -16.7969
70.7031 19.335 -16.7969
20.7031 19.335 -66.7969
70.7031 19.335 -66.7969
45.7031 54.6903 -41.7969
20.7031 1.65728 -4.29688
70.7031 1.65728 -4.29688
20.7031 1.65728 -54.2969
70.7031 1.65728 -54.2969
45.7031 37.0126 -29.2969
45.7031 1.65728 -4.29688
95.7031 1.65728 -4.29688
45.7031 1.65728 -54.2969
95.7031 1.65728 -54.2969
70.7031 37.0126 -29.2969
20.7031 1.65728 -29.2969
70.7031 1.65728 -29.2969
20.7031 1.65728 -79.2969
70.7031 1.65728 -79.2969
45.7031 37.0126 -54.2969
45.7031 1.65728 -29.2969
95.7031 1.65728 -29.2969
45.7031 1.65728 -79.2969
95.7031 1.65728 -79.2969
70.7031 37.0126 -54.2969
33.2031 19.335 -16.7969
83.2031 19.335 -16.7969
33.2031 19.335 -66.7969
83.2031 19.335 -66.7969
58.2031 54.6903 -41.7969
8.20312 1.65728 -16.7969
58.2031 1.65728 -16.7969
8.20312 1.65728 -66.7969
58.2031 1.65728 -66.7969
33.2031 37.0126 -41.7969
33.2031 1.65728 -16.7969
83.2031 1.65728 -16.7969
33.2031 1.65728 -66.7969
83.2031 1.65728 -66.7969
58.2031 37.0126 -41.7969
8.20312 1.65728 -41.7969
58.2031 1.65728 -41.7969
8.20312 1.65728 -91.7969
58.2031 1.65728 -91.7969
33.2031 37.0126 -66.7969
33.2031 1.65728 -41.7969
83.2031 1.65728 -41.7969
33.2031 1.65728 -91.7969
83.2031 1.65728 -91.7969
58.2031 37.0126 -66.7969
20.7031 19.335 -29.2969
70.7031 19.335 -29.2969
20.7031 19.335 -79.2969
70.7031 19.335 -79.2969
45.7031 54.6903 -54.2969
20.7031 1.65728 -16.7969
70.7031 1.65728 -16.7969
20.7031 1.65728 -66.7969
70.7031 1.65728 -66.7969
45.7031 37.0126 -41.7969
45.7031 1.65728 -16.7969
95.7031 1.65728 -16.7969
45.7031 1.65728 -66.7969
95.7031 1.65728 -66.7969
70.7031 37.0126 -41.7969
20.7031 1.65728 -41.7969
70.7031 1.65728 -41.7969
20.7031 1.65728 -91.7969
70.7031 1.65728 -91.7969
45.7031 37.0126 -66.7969
45.7031 1.65728 -41.7969
95.7031 1.65728 -41.7969
45.7031 1.65728 -91.7969
95.7031 1.65728 -91.7969
70.7031 37.0126 -66.7969
33.2031 19.335 -29.2969
83.2031 19.335 -29.2969
33.2031 19.335 -79.2969
83.2031 19.335 -79.2969
58.2031 54.6903 -54.2969
14.4531 10.4961 -10.5469
64.4531 10.4961 -10.5469
14.4531 10.4961 -60.5469
64.4531 10.4961 -60.5469
39.4531 45.8515 -35.5469
39.4531 10.4961 -10.5469
89.4531 10.4961 -10.5469
39.4531 10.4961 -60.5469
89.4531 10.4961 -60.5469
64.4531 45.8515 -35.5469
14.4531 10.4961 -35.5469
64.4531 10.4961 -35.5469
14.4531 10.4961 -85.5469
64.4531 10.4961 -85.5469
39.4531 45.8515 -60.5469
39.4531 10.4961 -35.5469
89.4531 10.4961 -35.5469
39.4531 10.4961 -85.5469
89.4531 10.4961 -85.5469
64.4531 45.8515 -60.5469
26.9531 28.1738 -23.0469
76.9531 28.1738 -23.0469
26.9531 28.1738 -73.0469
76.9531 28.1738 -73.0469
51.9531 63.5291 -48.0469
1.95312 1.65728 -10.5469
